-28.458000 23.653000 3.292700 
17.931000 74.942001 -5.277400 
-17.551001 41.466999 20.403999 
-5.986500 60.770000 -24.936001 
-23.205999 21.409000 15.418000 
11.440000 47.116001 21.514999 
-20.575001 80.459999 -4.863600 
22.974001 5.227000 4.465700 
-12.313000 77.155998 -17.584000 
-22.000999 28.070000 -18.591999 
-20.297001 72.153999 -6.988700 
-26.315001 57.077000 -11.716000 
14.993000 16.500999 -20.410999 
-25.990999 28.080000 -13.129000 
21.353001 34.264999 -11.739000 
-28.601000 9.738100 1.649100 
-7.874500 66.514999 18.917000 
9.093100 61.563999 -21.216000 
3.425600 57.151001 -26.375999 
3.874700 70.664001 -20.121000 
-0.093561 72.741997 17.868999 
-27.677000 2.029800 3.202300 
-23.386000 19.693001 14.556000 
7.271100 0.418860 -22.246000 
-22.858000 62.751999 5.025700 
1.174000 15.401000 -26.888000 
-24.945000 58.820000 11.685000 
22.462999 35.292999 -9.442600 
-25.146999 0.630400 5.024900 
21.653999 58.116001 8.880900 
-7.241900 1.402300 -25.591999 
-26.340000 10.892000 10.006000 
-16.733000 0.741270 18.583000 
11.167000 62.945999 15.598000 
9.508400 46.597000 22.955000 
-19.521999 2.482600 18.983999 
21.881001 54.664001 9.971900 
17.298000 43.689999 16.704000 
22.322001 59.355000 2.267400 
-3.930900 20.868999 -26.945000 
15.112000 71.024002 8.901700 
17.268000 47.633999 16.733999 
-10.555000 48.773998 -26.125000 
21.309999 47.805000 -11.141000 
-6.551400 7.129700 -27.080000 
-18.351999 20.930000 -21.792999 
11.221000 75.001999 -13.906000 
-26.149000 14.689000 -12.810000 
21.025999 41.632000 10.992000 
6.787800 78.800003 -16.885000 
-0.707130 36.675999 25.316000 
-27.966000 5.795900 3.433800 
-21.214001 73.878998 -3.284000 
-20.014000 39.766998 18.927000 
23.153000 20.337999 3.419000 
-11.027000 0.094098 18.794001 
15.585000 18.655001 18.312000 
-25.815001 0.489710 2.758900 
-20.490000 62.008999 -13.769000 
-12.836000 6.985000 -25.083000 
7.269400 35.303001 23.926001 
10.701000 71.545998 -13.896000 
7.936500 22.514000 -24.719000 
15.231000 8.710100 18.608000 
17.298000 37.002998 16.704000 
-25.423000 61.269001 -5.264800 
2.823000 39.754002 25.167999 
18.556000 7.535000 -15.793000 
23.539000 19.659000 1.110100 
22.552999 27.035000 6.254500 
-12.343000 0.540000 21.379000 
23.090000 36.480000 3.822500 
-5.619300 34.293999 25.347000 
-16.937000 53.733002 20.916000 
21.975000 19.358000 -10.529000 
-0.479650 65.445000 -21.136000 
23.624001 16.922001 -2.191500 
-16.299999 77.232002 12.417000 
22.563999 9.691600 6.215100 
-4.323400 64.408997 -20.695000 
20.864000 60.957001 3.416600 
15.049000 74.856003 0.026266 
-5.459400 50.988998 -27.320999 
23.615999 22.584999 2.274000 
12.349000 23.971001 20.632999 
21.993000 5.227000 -8.004700 
2.964800 45.387001 -26.431000 
-28.021000 8.562300 -6.675500 
15.967000 66.169998 6.418600 
-13.976000 39.250000 22.629000 
23.004999 11.237000 -4.305200 
23.402000 23.628000 -5.531900 
17.063000 2.365700 -16.944000 
-9.460700 10.927000 24.518000 
13.779000 44.368999 -21.628000 
2.926500 64.151001 -19.125000 
-10.621000 61.014999 21.395000 
-11.231000 51.530998 23.759001 
0.626540 1.313800 -25.636000 
-26.938000 59.513000 3.977900 
7.245800 66.740997 -18.115999 
22.552000 22.070000 -7.371000 
-15.470000 55.569000 -23.549999 
-22.921000 69.822998 0.000000 
-28.396000 15.847000 3.788900 
14.797000 70.482002 -10.018000 
-26.493999 24.822001 9.590700 
-24.438999 5.769700 13.380000 
17.912001 75.103996 5.889300 
-11.824000 73.797997 16.334000 
-18.084000 44.865002 -22.016001 
23.495001 45.407001 -3.302000 
13.439000 80.586998 7.821700 
10.682000 19.186001 21.900999 
-18.122000 13.291000 -21.983999 
2.483600 52.584000 24.882999 
9.020100 73.202003 13.474000 
-28.350000 31.964001 2.829700 
-6.446700 19.798000 25.476999 
13.924000 78.236000 8.939000 
-28.799000 38.758999 -4.304000 
-16.764999 74.985001 11.782000 
1.045300 54.236000 -27.209999 
-5.567700 58.219002 24.705999 
15.823000 63.938000 -4.837700 
20.056999 31.523001 -13.837000 
13.941000 42.660000 -21.143000 
-15.378000 58.638000 -23.233000 
12.639000 59.846001 19.315001 
15.669000 9.809500 -19.488001 
16.302000 50.897999 17.238001 
-26.742001 57.109001 7.819800 
-8.148500 72.025002 16.271999 
12.220000 38.206001 21.080999 
19.195000 1.449200 -13.391000 
19.218000 19.650999 13.357000 
9.708500 64.820000 -17.299999 
24.025000 38.889000 -1.007000 
0.610600 32.608002 -26.907000 
-17.410000 58.990002 -21.347000 
-28.143999 50.460999 -6.136300 
-7.894400 76.120003 17.483999 
9.411600 76.082001 14.604000 
1.689900 51.007000 -26.861000 
-21.179001 69.547997 -5.123800 
-14.055000 7.539800 22.580000 
-10.647000 19.798000 24.027000 
-18.427999 11.424000 -21.729000 
2.894800 76.592003 17.298000 
5.028200 24.181999 24.496000 
18.367001 39.231998 15.521000 
23.396999 7.459300 0.571820 
11.825000 81.139999 9.575800 
-4.953800 51.026001 25.485001 
6.887400 7.560100 23.707001 
-21.180000 1.884700 15.558000 
-21.740999 36.027000 17.170000 
12.433000 5.913700 -22.246000 
-28.474001 55.549999 4.357100 
7.241900 47.263000 -25.591999 
1.700500 77.135002 -19.437000 
19.104000 8.073800 -15.636000 
-25.243000 54.354000 -14.515000 
11.628000 27.593000 21.777000 
14.137000 0.873920 -17.837000 
-15.667000 41.978001 21.884001 
-13.887000 73.317001 -17.209999 
-13.422000 75.431000 -16.753000 
-8.417900 27.641001 24.728001 
23.159000 48.155998 3.378500 
13.940000 65.927002 -12.204000 
-10.583000 59.244999 23.007999 
-25.840000 58.286999 -11.235000 
18.844999 56.035999 14.936000 
-24.587000 5.848200 -15.008000 
7.946300 10.927000 -25.049999 
13.933000 70.501999 10.653000 
21.431999 25.844999 10.177000 
-7.503900 38.733002 24.854000 
19.097000 25.844999 14.079000 
-3.350500 2.452300 24.781000 
-24.091999 6.423900 13.355000 
6.530300 31.915001 -25.618999 
-4.237200 21.216999 -27.058001 
21.142000 48.155998 10.039000 
-25.636999 1.372900 5.777500 
23.235001 21.368000 2.811700 
9.677300 19.872000 22.363001 
17.487000 10.300000 -17.426001 
-28.458000 40.452999 -4.456400 
-2.107800 0.112910 20.054001 
19.121000 52.613998 14.046000 
0.950320 44.702000 -27.214001 
11.095000 34.806000 -23.472000 
5.732800 37.029999 -25.646999 
15.934000 1.158100 15.334000 
19.148001 50.389000 13.458000 
22.972000 15.682000 2.252400 
12.742000 74.916000 -6.297500 
14.704000 75.018997 3.912600 
22.679001 36.994999 5.780800 
-11.659000 38.737999 23.905001 
23.667999 53.127998 -1.655000 
7.874100 5.847900 23.396999 
22.429001 59.355000 0.626490 
-11.131000 61.838001 -22.035000 
20.273001 9.200500 12.326000 
21.938000 54.826000 -10.605000 
-24.371000 61.460999 7.451000 
4.481300 11.461000 -26.216999 
-17.337000 64.853996 -14.496000 
-11.110000 4.749700 -25.551001 
15.791000 77.113998 -7.633500 
13.417000 70.441002 -12.777000 
4.481300 30.896000 -26.216999 
7.269400 15.285000 23.926001 
8.370400 1.968100 -23.902000 
23.433001 29.277000 3.711500 
17.205000 71.372002 -3.406700 
-14.512000 28.049000 -24.152000 
10.019000 5.270100 -23.951000 
-9.483500 25.319000 -26.198000 
-8.237900 54.611000 24.621000 
-13.294000 39.763000 23.402000 
-28.475000 2.596800 -0.944620 
6.169600 76.603996 16.242001 
19.122999 19.701000 -15.102000 
-12.175000 50.983002 -25.410000 
19.076000 5.334200 -15.670000 
23.305000 52.613998 4.445700 
6.218800 17.509001 24.221001 
-1.770900 61.049000 23.014000 
19.587999 33.064999 -14.494000 
-6.148800 39.757999 25.224001 
-15.063000 61.838001 -19.559000 
1.431500 27.113001 25.604000 
-9.337400 1.091000 -25.242001 
-1.118600 49.323002 25.620001 
-25.884001 59.525002 7.373300 
-5.598000 65.806999 -20.049999 
22.259001 57.601002 7.232300 
-8.151900 23.709000 24.649000 
-14.552000 74.889999 -16.219000 
-18.361000 76.121002 -11.120000 
22.069000 53.806999 -9.550000 
-16.219000 30.436001 -23.424000 
-23.076000 62.751999 -3.903100 
19.695999 12.622000 12.938000 
-7.287800 36.518002 25.249001 
2.456300 74.867996 14.678000 
-23.739000 38.077999 -16.315001 
7.382400 18.690001 23.556999 
18.339001 35.287998 15.553000 
-13.419000 64.064003 -16.337000 
-9.526800 76.070999 17.400999 
23.563999 15.397000 -4.794100 
20.056999 12.504000 -13.837000 
-3.412900 49.808998 -27.016001 
-22.730000 4.151900 -17.695000 
-0.441990 10.346000 25.322001 
-20.118000 8.053500 -20.615999 
19.663000 27.582001 -14.391000 
-2.542300 64.205002 -21.642000 
23.305000 29.277000 4.445700 
-25.431999 9.703000 12.130000 
14.698000 22.642000 -20.231001 
11.689000 75.410004 12.404000 
17.268000 34.258999 16.733999 
-26.902000 24.181000 -11.143000 
0.563640 39.763000 -26.908001 
-10.555000 43.167999 -26.125000 
17.763000 7.020900 -16.680000 
-28.198999 45.035999 2.764900 
-1.647000 63.844002 18.454000 
16.341000 75.110001 -1.142600 
-16.795000 78.734001 -12.841000 
21.051001 33.741001 11.287000 
-12.773000 52.717999 23.330000 
21.850000 40.944000 8.387300 
-28.784000 42.658001 -4.404500 
-12.322000 50.331001 23.570000 
-25.448999 2.000900 10.541000 
-15.050000 46.407001 22.313000 
10.666000 76.094002 13.505000 
-0.845390 24.601000 -26.900999 
-28.427999 28.250000 -6.302400 
10.349000 47.957001 -23.462999 
15.767000 74.899002 -6.020900 
-25.975000 14.799000 10.919000 
-3.412900 15.932000 -27.016001 
-19.521999 23.591999 18.983999 
-14.415000 60.797001 20.434000 
12.688000 75.571999 11.626000 
5.194400 47.606998 -25.761000 
-9.515200 57.683998 24.156000 
15.499000 43.174999 18.802000 
-2.742000 24.385000 25.657000 
17.424999 63.180000 3.958800 
18.318001 41.463001 -17.021999 
12.822000 40.438999 -22.208000 
-17.712000 77.672997 -12.128000 
-24.240999 1.290900 -12.405000 
-2.245800 63.262001 19.711000 
21.787001 18.629999 8.979900 
16.761000 68.781998 3.900400 
-24.169001 17.062000 -16.240999 
-15.808000 39.772999 -23.702999 
24.032000 16.598000 -0.839210 
17.632000 36.484001 15.876000 
-22.056999 24.285999 16.500999 
2.312400 70.982002 18.051001 
-5.012900 66.100998 -21.205999 
15.231000 35.973999 18.608000 
-7.309900 71.528000 -19.143000 
-0.642690 78.504997 17.527000 
-21.202000 73.293999 -7.341900 
-17.224001 80.861000 -11.100000 
-17.270000 57.098000 -22.264000 
-22.174999 22.995001 -18.872000 
8.382200 44.877998 -24.907000 
13.837000 45.402000 20.056999 
22.246000 25.318001 7.271100 
-28.153999 3.587600 1.130800 
-28.214001 43.676998 3.965200 
-8.950400 64.267998 18.433001 
-18.400000 24.847000 -22.163000 
-27.976999 28.224001 4.481200 
-2.204900 69.879997 19.056999 
-28.937000 5.704800 -3.245800 
17.205000 63.542999 3.406700 
-26.106001 8.683800 10.601000 
12.433000 57.016998 -22.246000 
7.858800 48.801998 -25.077000 
16.323999 67.178001 -7.267900 
15.659000 39.743999 17.823999 
-21.296000 39.776001 -19.858999 
11.813000 17.473000 21.312000 
-8.420700 2.511200 -26.226999 
-25.216999 44.353001 -14.559000 
-14.131000 31.957001 -24.377001 
-25.243000 53.675999 -14.515000 
21.955999 21.927999 -10.567000 
-13.700000 60.207001 -23.166000 
20.048000 52.591999 -14.406000 
20.149000 20.322001 11.261000 
-10.230000 64.376999 -19.240000 
-26.631001 1.816200 -6.393700 
11.893000 30.333000 21.632999 
23.483000 4.739000 3.384000 
19.000999 28.080999 14.475000 
22.406000 19.153000 7.802600 
-26.886999 52.001999 8.425900 
24.018000 55.863998 -1.174700 
-6.030300 20.389000 -27.201000 
15.659000 56.046001 17.823999 
-20.118000 29.766001 -20.615999 
3.441200 71.330002 17.870001 
14.957000 39.754002 -20.437000 
-16.219000 56.577999 -23.424000 
8.852100 57.750000 22.358000 
22.194000 54.844002 8.386400 
-22.034000 24.167999 -18.554001 
-12.836000 15.819000 -25.083000 
11.811000 66.585999 -15.117000 
5.059500 42.830002 -25.788000 
19.128000 58.264999 -14.572000 
6.185700 79.952003 15.703000 
15.592000 39.754002 -19.957001 
11.477000 41.460999 21.495001 
17.298000 40.945999 16.704000 
23.701000 33.223999 -1.076300 
-13.419000 16.405001 22.964001 
-4.482200 77.732002 17.976999 
-22.034000 41.471001 -18.554001 
19.018999 62.063999 -4.355900 
-16.120001 62.123001 15.138000 
0.102160 77.653999 -19.511000 
15.027000 3.537900 18.360001 
-23.480000 33.667999 -16.686001 
3.346600 78.852997 17.216999 
-11.235000 24.312000 -25.840000 
20.760000 27.035000 10.807000 
0.590310 63.546001 -21.132999 
-3.881300 8.635500 -27.271000 
-7.579000 72.154999 17.264999 
-11.710000 69.646004 16.416000 
-25.690001 17.052999 -13.373000 
-0.522750 24.273001 -27.225000 
-11.020000 55.918999 -25.589001 
7.920500 67.681000 16.384001 
9.118000 77.164001 14.203000 
19.148001 4.196600 13.458000 
-27.386999 12.612000 7.853200 
5.687700 62.085999 18.149000 
-10.466000 61.866001 -21.650000 
-12.398000 73.833000 -18.312000 
7.590600 58.026001 -24.827999 
23.059999 28.761999 -5.578900 
14.698000 26.406000 -20.231001 
0.107290 64.267998 -20.490999 
8.366700 40.439999 -24.577000 
-10.098000 24.822001 -26.305000 
-28.614000 21.454000 -3.310800 
4.675800 73.946999 14.830000 
-21.360001 68.801003 -7.859000 
-7.236200 65.945999 -20.209999 
5.565200 77.635002 16.632999 
-23.407000 33.166000 -17.320000 
2.898000 74.859001 -19.625000 
10.375000 43.174999 22.048000 
-28.403000 3.615300 -2.235400 
21.653999 2.651200 8.880900 
21.476000 49.362999 8.459700 
22.927999 4.739000 -6.100600 
-7.460500 42.660000 24.867001 
-12.322000 18.110001 23.570000 
15.827000 35.971001 17.889999 
-14.596000 39.261002 -24.101000 
-25.169001 52.158001 -14.009000 
-16.243000 65.962997 13.533000 
-19.906000 78.336998 -8.862900 
-18.900999 65.945999 10.177000 
-14.503000 10.236000 -24.523001 
-21.170000 74.889999 5.160800 
13.000000 64.303001 9.690200 
-5.619300 45.903999 25.347000 
20.629000 37.685001 11.719000 
16.745001 71.239998 -2.115300 
11.813000 8.563000 21.312000 
-27.395000 52.667000 -8.901200 
11.692000 74.612999 6.832400 
-28.214001 24.834000 3.965200 
-20.768000 16.952999 17.612000 
6.763200 34.784000 23.742001 
-1.695500 67.170998 -21.073000 
6.668700 39.758999 -25.420000 
10.120000 48.139999 22.517000 
2.811700 61.549999 -23.235001 
14.548000 75.417000 -0.050782 
23.665001 28.761999 1.696300 
-19.646999 40.452000 -20.849001 
8.874300 73.772003 12.768000 
13.520000 20.386000 20.271999 
-15.360000 7.564800 22.100000 
-4.395700 58.673000 -26.552999 
-12.773000 51.013000 23.330000 
10.741000 74.844002 10.778000 
2.823000 23.681999 25.167999 
14.254000 58.252998 -19.763000 
7.417400 64.363998 -16.978001 
7.685900 55.834999 23.796000 
-23.341000 23.836000 -17.146000 
0.570270 33.636002 -27.224001 
-2.670200 74.871002 -19.493000 
-21.452000 63.875999 0.786600 
14.199000 67.214996 9.722300 
-12.873000 63.562000 16.358999 
5.716000 45.056999 24.180000 
-21.142000 72.694000 0.036899 
-27.583000 5.482600 -7.133600 
-28.716000 9.749800 -2.260000 
-0.544780 65.528999 19.504000 
2.771600 61.778000 -21.940001 
13.585000 25.857000 19.841000 
-22.983999 63.798000 -2.132100 
7.331900 46.584000 -25.236000 
-10.098000 10.892000 -26.305000 
-3.347200 53.765999 25.424999 
15.522000 6.413500 -20.011000 
-15.140000 47.071999 -24.135000 
3.425600 44.875999 -26.375999 
15.168000 25.863001 18.865000 
-24.490999 1.431800 11.161000 
16.715000 4.703700 -19.025999 
5.094700 61.365002 -23.172001 
1.783200 71.235001 -19.594000 
2.645000 63.734001 -20.648001 
8.413900 7.020900 22.868000 
11.813000 31.523001 21.312000 
18.389999 58.766998 -15.986000 
3.927100 1.514100 -25.664000 
1.260500 72.664001 -18.978001 
17.996000 54.817001 -16.899000 
-26.882999 28.080000 -11.190000 
-3.328200 69.261002 -20.549000 
-4.953800 41.977001 25.485001 
17.365000 5.227000 15.691000 
-21.558001 37.044998 17.148001 
23.399000 48.155998 0.490140 
-23.004999 13.142000 -17.334999 
-11.218000 3.562800 23.414000 
-20.664000 74.936996 4.467700 
-25.020000 42.659000 12.257000 
21.951000 22.584999 9.002800 
15.395000 31.197001 -19.705000 
-18.009001 45.383999 20.212999 
-25.976999 24.167999 -12.446000 
15.958000 78.960999 -2.871400 
20.247999 36.994999 11.737000 
20.759001 60.931000 -6.625000 
-22.427999 64.330002 3.874000 
-25.493999 61.625000 -2.769500 
19.577000 57.578999 -13.964000 
8.452500 37.537998 -24.548000 
-21.379999 71.594002 5.648900 
-25.975000 55.909000 10.919000 
7.633300 69.418999 16.520000 
-19.398001 72.821999 9.926500 
15.659000 47.466000 17.823999 
17.677000 63.527000 2.610300 
6.002900 17.860001 24.440001 
19.104000 45.400002 -15.636000 
-20.591999 63.140999 8.910900 
-28.458000 41.640999 4.456400 
-28.216999 17.552999 -5.792100 
-18.351999 37.566002 -21.792999 
18.988001 76.442001 4.488500 
-12.890000 55.389999 -25.408001 
13.689000 54.320999 19.770000 
20.247999 56.570999 11.737000 
10.201000 73.794998 11.290000 
-3.888100 74.930000 18.450001 
-23.832001 19.709000 14.433000 
-19.233000 1.684800 17.438999 
-28.486000 3.615300 -0.546950 
-28.229000 21.978001 -7.143000 
22.964001 28.570999 2.332600 
-23.205999 13.590000 15.418000 
-12.773000 44.875999 23.330000 
20.944000 8.477300 10.080000 
-25.431999 26.521000 12.130000 
-28.214001 9.726400 3.965200 
-2.069400 44.368000 25.719999 
18.645000 21.384001 14.672000 
8.341600 60.029999 21.176001 
-26.007999 40.282001 11.634000 
19.507000 62.063999 0.408610 
-10.563000 53.749001 24.063999 
-18.378000 66.617996 11.708000 
6.695800 78.225998 -17.627001 
19.347000 24.169001 -15.334000 
-13.419000 51.525002 22.964001 
-4.123600 0.112910 19.739000 
22.777000 14.197000 -7.709600 
5.029400 15.382000 -26.117001 
-23.909000 56.568001 -16.066000 
19.584999 7.046400 -15.028000 
-12.322000 8.562700 23.570000 
24.046000 51.063000 -0.041969 
9.528100 59.244999 -23.465000 
-18.160000 68.103996 -13.985000 
-18.396000 37.041000 20.076000 
23.620001 56.560001 -2.232800 
23.042000 24.790001 -1.368900 
9.007700 5.847900 22.985001 
-27.875999 3.670700 -8.416200 
22.997000 18.115000 5.140500 
5.529900 16.916000 -26.016001 
-23.419001 6.959700 15.093000 
-22.885000 62.050999 6.260500 
23.347000 58.287998 -1.632600 
-26.356001 3.021600 8.007700 
-5.068700 60.087002 -25.138000 
19.103001 20.370001 14.605000 
-6.148800 55.465000 25.224001 
-27.516001 31.979000 -9.528100 
-28.350000 5.312800 -2.829700 
20.587000 4.196600 11.132000 
17.344999 71.035004 -1.000100 
-27.395000 13.142000 -8.901200 
-26.981001 30.275000 -10.088000 
-24.438999 19.709000 13.380000 
15.395000 48.136002 -19.705000 
-27.231001 54.881001 8.377500 
13.098000 62.092999 13.564000 
6.757300 60.480999 -23.410999 
7.185000 62.764999 17.964001 
-21.730000 73.444000 -6.768300 
6.928800 44.373001 23.695000 
-20.622999 64.172997 8.839000 
-23.004999 62.251999 -1.891300 
4.514100 5.360900 24.596001 
15.522000 33.085999 -20.011000 
-22.989000 27.018999 15.741000 
23.075001 13.448000 -0.563950 
-23.407000 54.523998 -17.320000 
-27.386999 47.071999 7.853200 
-21.316000 3.702000 17.447001 
6.682700 49.847000 24.097000 
-29.058001 32.487000 -1.879100 
-16.577000 8.781500 21.603001 
-28.229000 36.556000 -7.143000 
-7.185900 1.939000 23.952000 
-19.646999 63.734001 6.880100 
5.679200 34.784000 24.025000 
9.487100 54.304001 22.791000 
-9.977200 3.562800 23.969000 
-8.852200 72.154999 16.649000 
4.481300 47.604000 -26.216999 
-28.132000 23.136999 4.506100 
8.098600 71.024002 15.557000 
23.070000 51.591000 3.943400 
10.045000 61.979000 -18.971001 
14.046000 53.643002 19.121000 
-19.825001 63.327999 9.798100 
-9.359100 55.909000 -26.577000 
16.316999 0.075421 -16.778999 
-9.590900 75.353996 17.738001 
-28.805000 5.339300 0.050274 
11.761000 79.980003 11.639000 
-10.476000 80.025002 -17.230000 
-23.004999 20.267000 -17.334999 
-7.331200 6.857800 25.566999 
23.396999 34.247002 0.571820 
12.079000 4.389200 -22.621000 
-11.685000 18.705999 -25.639000 
0.574570 20.263000 25.319000 
-18.438000 54.872002 -22.129999 
-18.222000 62.022999 -16.177999 
3.931700 44.874001 -26.625000 
-28.799000 11.446000 0.603250 
-7.243700 12.462000 25.261999 
-21.750999 73.661003 3.992000 
-10.211000 25.489000 -25.923000 
-5.619300 37.026001 25.347000 
-21.208000 77.672997 3.321000 
5.699500 72.741997 -16.936001 
-15.050000 37.549000 22.313000 
-9.033700 13.101000 -26.688999 
-1.163300 6.439400 25.618000 
-2.251300 3.677900 25.225000 
7.403600 70.552002 -18.052000 
-27.771000 39.265999 -7.649400 
-28.464001 40.960999 -1.242800 
2.244700 2.567100 -26.184000 
3.419800 36.526001 -26.695999 
-8.295200 28.158001 24.936001 
-2.235000 57.182999 25.547001 
14.635000 24.195000 -20.669001 
-25.250999 27.528999 11.775000 
-1.092800 43.681000 -27.208000 
-1.090900 75.001999 17.836000 
5.048400 56.529999 24.165001 
-13.831000 62.137001 16.837999 
-28.672001 53.683998 -2.760800 
-0.047526 21.379000 -27.230000 
-5.586000 27.518999 -26.974001 
5.028200 19.219999 24.496000 
4.450900 76.973999 -18.829000 
-14.886000 44.865002 -24.292999 
-14.421000 55.948002 22.724001 
17.879999 61.661999 -10.659000 
-6.259600 0.174460 19.853001 
15.251000 53.814999 18.174999 
-17.495001 44.355000 -22.882999 
-28.216999 52.667000 -5.792100 
2.850300 1.307200 23.554001 
18.844999 44.203999 14.936000 
-5.024900 31.896000 25.146999 
-16.643999 37.036999 21.150000 
18.575001 37.523998 -16.261000 
7.858800 56.479000 -25.077000 
7.680200 75.427002 -17.579000 
-19.301001 80.833000 -7.798000 
-12.375000 72.056999 16.127001 
13.779000 26.600000 -21.628000 
20.165001 61.862999 0.000000 
3.977200 11.972000 -26.298000 
-18.674999 53.724998 19.816999 
-21.615000 73.661003 4.673300 
19.726000 76.070999 -2.108100 
21.214001 50.897999 10.623000 
-17.941999 68.876999 11.785000 
6.668700 18.091999 -25.420000 
-10.184000 11.439000 24.226000 
-28.798000 7.544600 0.653510 
-1.665100 39.757000 25.749001 
-7.763800 5.782300 24.774000 
18.360001 12.461000 15.027000 
23.090000 23.086000 3.822500 
13.978000 21.459000 -21.118999 
6.668700 9.732600 -25.420000 
-24.158001 21.962999 -15.688000 
23.407000 23.614000 -3.875000 
-14.596000 16.327999 -24.101000 
-23.004999 16.365000 -17.334999 
-8.945100 35.324001 24.711000 
-12.792000 19.726000 -25.105000 
-6.504100 18.688999 -27.091999 
16.570000 12.547000 -18.729000 
-19.816999 20.358000 18.674999 
-17.728001 19.149000 20.250000 
5.149400 38.564999 -25.770000 
-11.235000 48.264999 -25.840000 
17.298000 54.320999 16.704000 
21.406000 43.689999 -10.954000 
-13.419000 44.363998 22.964001 
-14.417000 54.370998 -24.573999 
-8.295200 21.504000 24.936001 
-9.405500 12.591000 -26.559999 
-22.306000 2.993300 15.619000 
-28.472000 56.577999 -1.044000 
-28.132000 27.889999 -4.506100 
21.194000 58.287998 -9.928100 
6.544300 39.244999 -25.124001 
16.511000 48.667000 17.038000 
13.235000 4.108000 20.459000 
11.015000 20.915001 22.093000 
16.813999 54.286999 -18.938000 
-21.107000 73.878998 3.911900 
20.950001 21.056000 -11.805000 
6.134900 53.749001 -25.554001 
-27.756001 14.858000 -8.804600 
-4.404100 19.693001 -27.191999 
11.073000 77.164001 12.738000 
17.830000 74.828003 1.184200 
13.536000 28.091000 20.068001 
-7.258000 30.419001 -26.900000 
-12.873000 70.988998 16.358999 
-28.132000 20.591000 4.506100 
-23.377001 27.572001 -17.361000 
-26.216000 50.964001 -12.673000 
-7.199600 5.808700 25.274000 
-28.849001 47.574001 -3.951900 
22.090000 16.236000 -8.656900 
-22.480000 33.667999 -18.010000 
-23.451000 9.749800 -16.726999 
-26.719999 13.610000 8.940500 
-12.958000 64.237000 16.705000 
-26.577000 20.405001 9.359100 
8.963300 74.400002 -13.908000 
-7.367500 77.706001 17.357000 
19.347000 28.107000 -15.334000 
0.062374 63.701000 17.868999 
19.826000 18.106001 12.437000 
-5.506700 60.429001 -25.046000 
16.839001 76.641998 -1.147900 
-22.711000 10.360000 16.139999 
-24.959999 38.081001 -14.997000 
-18.785999 30.921000 20.146000 
4.924400 43.682999 -25.813999 
-25.452999 36.542999 12.086000 
21.159000 18.106001 10.002000 
11.211000 32.041000 21.815001 
7.772100 69.185997 -17.539000 
0.044201 17.527000 25.325001 
-26.527000 4.294300 -10.396000 
-3.790400 23.695000 25.362000 
-10.964000 29.747999 -25.955999 
21.142000 42.660999 10.039000 
23.281000 9.224500 -6.020800 
-21.253000 71.087997 -5.496400 
19.628000 59.833000 -12.747000 
4.771400 72.719002 -17.562000 
-5.534700 67.762001 19.051001 
-10.049000 31.408001 24.625999 
22.417000 8.661300 6.725400 
18.007000 6.429000 14.950000 
-28.291000 58.615002 -3.373400 
21.787001 26.525999 8.979900 
3.306700 77.878998 -18.563999 
-11.576000 78.734001 -17.690001 
11.722000 22.500000 -22.808001 
-19.546000 29.559999 19.410000 
17.393999 2.450600 15.174000 
10.682000 32.550999 21.900999 
-25.733999 34.855000 -12.943000 
16.541000 79.806000 -0.404260 
15.294000 73.248001 -2.807000 
16.108999 34.283001 -19.542000 
13.216000 76.044998 -12.026000 
-15.075000 62.066002 -17.902000 
11.661000 63.748001 12.202000 
-2.456800 6.857800 -26.483000 
-27.348000 26.034000 -9.044600 
-27.888000 40.452999 -7.212200 
22.934000 13.168000 -7.230900 
-15.667000 22.046000 21.884001 
-10.617000 35.179001 -25.759001 
22.150999 15.397000 -9.357100 
-21.732000 66.583000 5.579900 
0.044757 45.394001 25.643999 
22.069000 28.771999 -9.550000 
15.868000 19.888000 -18.910999 
-24.742001 44.863998 -14.749000 
13.964000 4.251800 19.577000 
5.085600 73.180000 15.745000 
14.596000 5.992800 19.511000 
21.347000 41.459000 9.593900 
18.360001 8.685700 15.027000 
18.360001 53.127998 15.027000 
5.103300 18.715000 24.643000 
-24.976999 38.749001 12.345000 
-3.837500 1.001900 -25.677000 
-17.846001 5.456200 -21.804001 
-28.143999 19.249001 -6.136300 
-24.392000 57.618000 13.465000 
1.722500 29.837000 25.267000 
8.925600 77.732002 -16.236000 
-21.739000 30.275000 -18.898001 
-20.107000 69.222000 7.517600 
23.379999 6.429000 -1.061700 
6.134900 38.223999 -25.554001 
-24.785000 2.568300 -13.401000 
-25.386000 17.044001 -13.612000 
23.051001 43.691002 5.619100 
23.305000 25.330000 4.445700 
16.806000 19.153000 16.747000 
-28.785999 12.464000 -1.055500 
-21.222000 69.842003 -7.766300 
-23.437000 6.552400 -17.280001 
-25.042000 50.479000 12.214000 
-20.047001 52.695999 18.892000 
-26.507999 60.389999 2.179300 
2.228500 0.671720 22.326000 
-3.195000 74.480003 17.580999 
2.949700 64.348000 18.624001 
14.598000 52.063999 -20.695000 
2.787400 27.945999 24.851000 
-21.410999 63.140999 6.709700 
-26.172001 9.773100 -12.765000 
21.544001 52.620998 9.144800 
-15.352000 79.360001 12.565000 
16.313000 61.474998 -13.448000 
15.049000 17.509001 -19.971001 
-7.725000 74.690002 15.562000 
-28.280001 47.578999 4.580300 
16.882000 1.876400 14.779000 
-2.803900 16.368000 25.809999 
-4.455400 68.300003 18.996000 
-0.043923 0.927320 -25.166000 
-14.514000 81.033997 -14.464000 
-27.533001 7.010400 7.326000 
-23.076000 35.344002 15.043000 
2.773000 60.876999 22.915001 
15.231000 47.633999 18.608000 
17.379999 30.993000 16.150999 
-15.632000 0.861050 -21.125000 
-21.766001 78.681999 -1.026500 
-8.790700 7.539800 25.101999 
5.284300 48.118999 -25.743000 
-12.322000 4.641500 23.570000 
-26.704000 28.757999 -11.611000 
-28.350000 18.044001 2.829700 
17.879000 12.461000 15.597000 
-18.357000 77.648003 -11.740000 
-7.846600 65.495003 18.575001 
-14.979000 60.455002 20.023001 
21.774000 58.276001 -9.422600 
-23.909000 52.667000 -16.066000 
-22.997000 10.337000 15.164000 
-27.049999 6.670900 -8.945900 
15.104000 65.960999 9.548300 
-20.593000 77.672997 -6.060800 
6.619700 13.667000 -25.596001 
20.481001 3.051600 -12.600000 
6.030100 64.975998 -19.242001 
3.955000 18.707001 24.691999 
-19.063999 37.566002 -21.173000 
23.378000 36.994999 -1.102500 
-3.364000 75.824997 -20.542999 
9.007700 20.915001 22.985001 
-7.832500 66.635002 -19.986000 
-18.458000 35.162998 19.587000 
-26.106001 49.284000 10.601000 
16.396000 65.978996 6.228200 
2.747000 58.696999 -26.136000 
17.813999 38.202999 16.153000 
-23.832001 9.679600 14.433000 
-11.685000 44.356998 -25.639000 
-7.683500 56.650002 25.132000 
-22.153999 7.967300 16.634001 
-23.389999 2.482600 13.943000 
-18.950001 18.655001 19.555000 
-11.272000 11.609000 23.740000 
-16.254999 23.756001 21.649000 
-3.882300 33.782001 25.670000 
-26.719999 6.985000 8.940500 
2.252400 61.563999 -22.972000 
23.396999 38.196999 0.571820 
-3.984700 64.348000 18.430000 
15.499000 20.900000 18.802000 
3.466400 21.364000 -26.690001 
17.938000 2.106900 -14.526000 
1.148800 28.639999 25.299000 
-7.751400 80.917999 -18.261000 
13.284000 24.208000 -21.934999 
-22.563999 43.680000 15.800000 
-9.475600 71.612999 16.680000 
-17.462000 48.259998 -22.511999 
20.157000 76.045998 -0.563030 
-24.080000 54.898998 14.015000 
18.898001 74.906998 3.298200 
14.420000 67.195999 9.984600 
1.029100 17.545000 25.622999 
-3.365700 45.894001 -27.021000 
-24.819000 27.052000 -14.620000 
15.231000 24.313999 18.608000 
-23.509001 43.675999 -16.645000 
-21.316000 7.444600 17.447001 
9.622800 29.129000 22.559999 
-10.684000 72.111000 16.326000 
23.090000 28.065001 3.822500 
-13.875000 14.120000 -24.524000 
-15.109000 76.613998 -15.701000 
-10.563000 54.933998 24.410000 
20.296000 32.550999 -13.484000 
13.235000 38.720001 20.459000 
-26.882999 37.573002 -11.190000 
-27.112000 44.865002 8.756900 
-10.684000 77.135002 16.326000 
10.159000 44.373001 22.500000 
15.231000 19.170000 18.608000 
22.966000 17.075001 4.505800 
16.177999 29.981001 18.222000 
-1.610100 61.908001 -23.025999 
6.102000 59.293999 23.259001 
-23.679001 54.389000 14.682000 
-25.216999 46.556999 -14.559000 
-22.333000 60.363998 -15.580000 
-15.742000 61.908001 16.881001 
15.255000 63.756001 -6.824100 
15.854000 78.263000 3.398900 
-27.877001 22.621000 5.066100 
-18.990000 28.739000 -21.239000 
-20.981001 35.708000 -20.191000 
1.273200 34.792999 25.134001 
-25.162001 7.992000 12.327000 
-28.785999 30.275000 -1.055500 
-28.539000 17.044001 -3.909300 
11.631000 58.459000 20.309000 
13.872000 7.020900 20.033001 
-15.808000 19.233000 -23.702999 
-19.816999 31.423000 18.674999 
18.386000 26.531000 14.995000 
20.250999 33.223999 12.361000 
-10.572000 8.149600 -25.778000 
-13.322000 61.845001 -20.593000 
-12.760000 63.298000 -18.847000 
18.177000 74.977997 -0.888980 
22.048000 22.055000 7.851000 
2.252100 42.659000 -26.820000 
-1.092800 26.486000 -27.208000 
-28.407000 57.087002 -2.185800 
21.834000 45.408001 8.865700 
-22.511999 13.651000 -17.971001 
11.682000 64.619003 12.182000 
3.876300 61.556999 -22.917999 
-27.837000 38.244999 6.069400 
23.841000 41.804001 3.138700 
-5.413500 37.042999 -26.848000 
-12.757000 28.059999 -25.475000 
-24.624001 39.939999 13.370000 
19.332001 22.785000 14.834000 
-6.446700 18.604000 25.476999 
-26.514999 29.257000 -11.255000 
-28.266001 15.367000 -6.995100 
19.830000 28.076000 13.026000 
-28.458000 13.651000 -4.456400 
22.424000 35.452000 7.242800 
-10.964000 31.957001 -25.955999 
9.007700 14.751000 22.985001 
9.976700 64.404999 14.625000 
21.233000 24.816000 10.586000 
20.103001 75.009003 1.582100 
-6.920800 0.418860 22.358000 
19.172001 6.944100 13.424000 
22.069000 24.313999 -9.550000 
20.009001 59.335999 11.182000 
9.599500 20.806999 -24.122000 
-15.808000 11.424000 -23.702999 
-26.756001 8.707900 9.791200 
-28.148001 55.560001 -4.407800 
8.988300 23.211000 -24.695000 
19.122999 9.762500 -15.102000 
19.576000 50.382999 13.404000 
4.529700 66.430000 18.304001 
15.466000 33.064999 18.829000 
-20.540001 75.973000 5.007100 
3.830800 30.350000 25.034000 
-14.408000 35.328999 22.357000 
-27.034000 57.597000 -8.993100 
18.848000 16.407000 14.410000 
21.711000 48.658001 -11.062000 
-13.918000 10.383000 -24.499001 
-10.563000 6.491100 24.063999 
-1.654900 5.926800 25.591000 
-7.241900 1.743300 -25.591999 
23.051001 34.241001 -1.208000 
-4.585200 19.766001 25.231001 
10.511000 26.566000 22.337000 
-22.974001 38.757000 -17.375000 
-27.546000 44.863998 -8.421800 
9.417900 55.966999 -24.534000 
6.852600 79.833000 14.695000 
22.982000 31.500000 4.425600 
-6.001000 26.622999 25.586000 
2.871600 72.100998 16.799999 
20.066999 1.576600 -11.077000 
18.639000 14.217000 -15.695000 
-18.396000 13.718000 20.076000 
11.223000 78.960999 11.703000 
-10.135000 10.268000 24.590000 
-25.410000 25.356001 -13.568000 
22.917000 40.945000 6.140600 
21.291000 18.655001 11.178000 
8.765300 61.116001 19.594999 
22.243000 37.520000 -9.949800 
-11.688000 79.387001 15.623000 
15.839000 24.313999 18.093000 
0.035194 63.247002 20.165001 
-24.986000 35.368999 -14.954000 
22.552999 5.280700 -8.342600 
15.425000 57.578999 18.448000 
-26.683001 53.167999 -11.658000 
-7.808500 79.306000 -18.945000 
7.227700 9.809500 23.938999 
13.907000 26.382999 20.009001 
-1.314700 29.712000 -26.882000 
-24.548000 42.148998 13.832000 
-10.648000 34.476002 24.372999 
20.798000 30.323999 -12.695000 
-13.541000 80.454002 13.589000 
-12.396000 20.915001 -25.302999 
-21.202999 52.158001 -19.497000 
-14.026000 63.702999 -16.250000 
14.639000 11.454000 19.077000 
8.265000 27.775000 23.601000 
0.626540 23.695000 25.636000 
-4.404100 24.797001 -27.191999 
21.556999 21.399000 -10.654000 
-27.368000 13.790000 7.333300 
-12.901000 6.661700 22.895000 
2.878200 69.940002 17.969000 
-27.533001 29.247999 7.326000 
-20.961000 79.943001 2.759500 
7.874100 40.435001 23.396999 
-17.462000 16.517000 -22.511999 
-14.486000 4.130100 22.306000 
14.528000 43.174999 19.562000 
-14.382000 22.556999 22.749001 
-18.326000 3.163600 20.139999 
-0.441990 39.754002 25.322001 
-11.110000 20.219000 -25.551001 
16.863001 71.044998 3.430800 
18.080000 5.307500 -16.336000 
10.977000 14.238000 22.112000 
12.118000 16.349001 -22.600000 
22.927999 39.229000 -6.100600 
-11.790000 62.782001 -19.468000 
19.625000 37.002998 13.895000 
19.587999 10.276000 -14.494000 
-0.044757 14.811000 25.643999 
-1.662400 18.655001 -27.179001 
-3.365700 53.724998 -27.021000 
-24.475000 51.832001 13.960000 
21.233000 43.175999 10.586000 
21.214001 47.123001 10.623000 
-14.460000 34.849998 -24.549000 
-25.083000 34.844002 12.836000 
-14.641000 18.621000 22.205000 
-3.347200 48.811001 25.424999 
9.740800 34.268002 22.510000 
6.205700 73.224998 14.620000 
13.551000 10.882000 -21.771000 
18.344999 62.078999 5.608800 
-28.295000 17.374001 4.481500 
0.665630 61.076000 22.427000 
20.207001 46.096001 11.808000 
1.148800 8.636200 25.299000 
2.364300 18.110001 -26.492001 
13.597000 59.870998 17.848000 
13.271000 49.856998 20.436001 
-5.586000 38.745998 -26.974001 
-3.889000 68.723999 -20.781000 
17.313000 66.500999 2.804200 
-12.265000 67.189003 16.819000 
-1.924300 53.222000 -26.844999 
16.733999 30.315001 17.268000 
17.181999 13.574000 -18.169001 
18.164000 58.471001 14.243000 
9.403300 75.996002 -15.964000 
-2.742000 48.296001 25.657000 
-2.121200 61.894001 -23.308001 
-26.514999 18.740000 -11.255000 
15.335000 44.374001 18.937000 
20.736000 1.300500 -6.697400 
20.152000 1.905700 -10.580000 
-13.346000 5.299600 -24.993999 
-16.681000 5.350100 21.121000 
-19.563000 73.935997 -6.621800 
11.321000 58.276001 20.850000 
4.484800 17.527000 24.924999 
13.570000 18.040001 -21.382999 
17.433001 62.266998 -7.185400 
-10.964000 45.376999 -25.955999 
16.917000 62.605999 8.693900 
-1.662400 51.512001 -27.179001 
-27.875000 31.972000 -7.260900 
8.347300 34.960999 23.572001 
18.871000 10.939000 14.904000 
15.634000 76.616997 -7.190900 
15.703000 25.893000 -19.461000 
-7.737900 68.858002 -20.370001 
8.711400 80.363998 -15.978000 
-14.682000 57.618000 -23.679001 
10.560000 69.359001 -16.014999 
3.480900 46.422001 25.084999 
15.585000 21.399000 18.312000 
14.140000 0.753220 16.150999 
-12.863000 0.645430 -22.368999 
-1.757200 19.847000 -27.173000 
19.445999 30.311001 13.871000 
23.091999 51.577000 -6.708800 
5.231000 77.904999 -17.773001 
-28.485001 53.692001 0.596670 
-27.431999 11.572000 6.434100 
-16.260000 4.124600 -23.395000 
14.635000 29.323999 -20.669001 
-18.122000 24.834000 -21.983999 
-19.555000 19.847000 18.950001 
24.042000 32.029999 -0.461630 
10.219000 62.698002 -18.136000 
14.083000 0.949000 -18.893999 
11.054000 59.953999 -22.073999 
8.470600 5.532000 23.528000 
-5.554700 20.389000 -27.302000 
8.564800 12.012000 23.153999 
-25.976999 14.160000 -12.446000 
14.010000 68.781998 9.993100 
-27.368000 40.453999 -9.476800 
-0.519300 78.320999 -19.830999 
-27.058001 26.521000 7.861000 
-3.967400 47.102001 25.334999 
-12.051000 45.896000 24.065001 
-11.722000 60.941002 -22.808001 
-20.997000 78.362999 4.463100 
19.101000 17.075001 13.524000 
-2.578600 20.294001 25.834000 
23.538000 9.910300 -4.917400 
8.524300 8.073800 23.167999 
23.993999 6.995400 1.593700 
-10.552000 63.327999 -19.434000 
-25.966999 57.597000 -11.724000 
-16.645000 5.678600 -23.509001 
-10.416000 70.905998 -19.507000 
15.288000 59.342999 16.861000 
-25.976999 31.972000 -12.446000 
-4.419000 34.806000 25.583000 
-3.342500 78.839996 -19.555000 
-27.862000 10.937000 -7.309500 
-28.483999 19.233000 -0.646380 
-6.158900 62.094002 -21.910999 
-15.970000 74.960999 13.353000 
17.539000 64.413002 -0.061223 
-16.426001 74.097000 12.787000 
23.656000 6.455000 1.820200 
-6.491100 44.195000 25.466000 
-9.498200 37.562000 -26.527000 
20.209000 6.493900 -13.325000 
20.629000 40.431000 11.719000 
-11.276000 77.853996 15.520000 
7.955700 3.108300 23.370001 
-21.621000 71.036003 -7.108800 
5.149400 34.812000 -25.770000 
-27.934999 2.908100 -3.677800 
-25.021000 61.125999 3.918100 
3.911900 3.136700 24.698999 
-7.817000 0.205160 19.643000 
23.386000 49.353001 3.997500 
12.352000 74.343002 8.300500 
-26.274000 43.675999 -11.808000 
-6.125200 29.229000 -27.180000 
12.322000 48.146000 20.836000 
-16.643999 43.681999 21.150000 
15.591000 64.538002 -10.009000 
18.059000 17.075001 14.887000 
4.020200 66.532997 -19.760000 
21.450001 29.277000 10.139000 
-7.771200 40.953999 25.105000 
-10.527000 18.688999 -25.796000 
10.634000 20.962000 -23.334999 
21.742001 1.905700 6.730300 
-14.525000 1.231900 -22.281000 
4.893900 65.422997 17.528000 
23.559000 42.146000 0.534630 
6.127100 44.876999 -25.719000 
21.955999 11.476000 -10.567000 
-15.274000 70.470001 14.144000 
-22.287001 69.833000 4.615500 
-20.111000 2.596800 -20.181000 
20.250999 39.743999 12.361000 
7.933500 0.873920 21.333000 
-1.060500 6.926400 25.302999 
6.846000 42.660999 23.719000 
22.341999 23.114000 -8.891100 
8.944800 59.846001 21.278999 
13.978000 23.681999 -21.118999 
-10.555000 13.101000 -26.125000 
15.299000 80.063004 2.780300 
-21.115999 73.384003 -1.032800 
11.722000 8.660500 -22.808001 
-2.803900 38.221001 25.809999 
-19.534000 39.775002 -21.169001 
11.211000 9.602900 21.815001 
13.998000 40.945999 19.552000 
-8.997500 69.991997 18.046000 
-27.386999 55.898998 7.853200 
-23.909000 29.766001 -16.066000 
15.235000 38.720001 19.017000 
21.993000 27.549999 8.004700 
-10.591000 68.945000 17.351000 
-26.721001 17.875000 9.884500 
18.645000 28.076000 14.672000 
15.746000 79.430000 -6.075900 
-10.552000 67.116997 -19.434000 
13.271000 24.841000 20.436001 
-26.412001 23.673000 -12.260000 
19.552999 5.253800 13.438000 
-20.014000 8.125100 18.927000 
-12.967000 3.077900 -25.014999 
8.453800 56.026001 22.853001 
-1.705300 72.653000 -19.108000 
-22.280001 36.368999 16.729000 
-14.525000 49.820000 22.281000 
5.575300 24.759001 -26.006001 
-21.775000 25.028999 -19.333000 
-4.541200 52.021999 -26.849001 
15.066000 71.567001 -8.316600 
1.520900 8.489600 25.599001 
-21.473000 27.052000 -19.198999 
17.066999 44.206001 16.481001 
-25.976000 7.299700 10.075000 
14.140000 78.263000 7.935100 
-22.511999 9.749800 -17.971001 
-20.372999 73.556999 -5.649800 
23.375999 56.570999 1.143300 
17.872000 0.798570 -12.748000 
18.108000 15.074000 -16.305000 
-17.209999 42.659000 21.101999 
16.568001 78.209999 -3.220400 
-18.570999 2.539800 -20.770000 
-12.396000 17.007999 -25.302999 
12.368000 64.397003 -12.897000 
5.682400 63.230999 -19.687000 
-5.586000 48.783001 -26.974001 
22.966000 20.853001 4.505800 
18.792999 32.543999 15.002000 
-16.243999 76.097000 -14.524000 
-25.105000 13.610000 12.792000 
2.410600 29.191000 -26.488001 
0.610600 55.948002 -26.907000 
19.576000 15.893000 13.404000 
8.798300 24.695000 23.408001 
5.529900 56.469002 -26.016001 
11.704000 54.304001 21.736000 
11.000000 30.871000 -23.165001 
14.027000 73.794998 -5.896500 
-9.557300 5.270100 24.139000 
5.284300 30.888000 -25.743000 
10.550000 27.079000 22.319000 
-16.260000 36.547001 -23.395000 
-20.011999 12.527000 18.466000 
3.977200 16.916000 -26.298000 
-20.474001 66.565002 -9.941600 
10.097000 65.944000 15.140000 
-7.766500 21.254000 -27.084999 
15.522000 25.905001 -20.011000 
-17.813999 55.898998 -22.235001 
-15.208000 64.408997 14.686000 
18.934000 2.479500 13.757000 
-26.683001 56.896999 -11.658000 
23.153000 41.459000 3.419000 
21.951000 50.382999 9.002800 
-4.953800 20.806999 25.485001 
-25.862000 60.389999 6.209000 
-19.511000 78.242996 7.256000 
-16.773001 79.425003 -12.870000 
-21.739000 13.651000 -18.898001 
-21.101999 59.853001 -17.209999 
19.103001 31.516001 14.605000 
7.644300 12.547000 23.809000 
4.084200 9.809500 24.671000 
21.940001 0.985870 -2.771600 
-6.134900 22.528000 25.554001 
16.711000 22.785000 17.733999 
-27.704000 40.452000 6.651100 
6.090300 29.181999 -25.563999 
17.337000 63.512001 -5.532900 
13.308000 28.127001 -21.547001 
-14.022000 47.089001 22.972000 
-14.503000 46.563000 -24.523001 
-25.231001 53.709000 11.819000 
-26.719999 10.892000 8.940500 
11.066000 5.966500 21.349001 
-6.148800 36.000999 25.224001 
-17.502001 26.532000 -22.482000 
0.497880 68.848999 19.013000 
-28.487000 18.044001 0.497240 
21.396999 50.389000 9.482000 
23.395000 51.591000 -0.653480 
-12.322000 54.252998 23.570000 
-2.841200 78.814003 -19.964001 
14.549000 70.972000 -11.204000 
-11.951000 38.227001 23.761000 
-22.944000 44.870998 15.244000 
22.417000 17.075001 6.725400 
23.622000 50.028999 -5.977400 
-28.438000 54.881001 1.739300 
14.890000 64.413002 -9.268300 
-3.305600 2.994000 25.108999 
5.029400 32.601002 -26.117001 
3.397100 78.199997 -18.881001 
21.322001 0.783460 4.493300 
-22.511999 25.356001 -17.971001 
17.906000 26.531000 15.565000 
10.091000 1.939000 -22.879999 
16.350000 58.814999 16.292999 
-5.970300 74.875999 16.139999 
-27.216999 30.267000 8.425000 
1.722500 13.594000 25.267000 
20.149000 41.459000 11.261000 
-17.941999 67.669998 11.785000 
-7.858800 45.901001 25.077000 
10.276000 6.823900 21.740000 
19.625000 48.491001 13.895000 
-25.990999 39.776001 -13.129000 
17.497999 75.946999 -7.863800 
14.496000 65.944000 -11.003000 
-5.049900 63.171001 -21.197001 
-27.875000 13.651000 -7.260900 
-10.813000 14.959000 -25.849001 
18.360001 56.046001 15.027000 
21.386999 59.514999 -7.784400 
19.576000 42.660999 13.404000 
-3.742600 37.041000 -26.972000 
10.977000 55.160000 22.112000 
3.929600 72.438004 16.754000 
4.092700 53.261002 24.993000 
11.029000 2.179700 21.187000 
-26.872000 58.117001 8.472800 
15.560000 61.862999 12.826000 
14.993000 15.304000 -20.410999 
19.128000 12.311000 14.572000 
-0.469710 10.291000 -26.910000 
-21.473000 20.267000 -19.198999 
17.412001 64.934998 -2.107100 
-1.080100 5.350100 -26.892000 
-11.620000 68.838997 -18.815001 
-24.691000 54.389000 12.908000 
6.090300 25.940001 -25.563999 
-20.517000 71.637001 6.311900 
20.121000 61.502998 3.874700 
-11.235000 12.591000 -25.840000 
-16.024000 46.729000 -23.937000 
5.883100 75.248001 15.819000 
8.627500 74.646004 -12.936000 
16.197001 78.236000 3.383700 
-22.048000 70.551003 -3.177200 
-9.033700 13.610000 -26.688999 
-13.918000 40.790001 -24.499001 
-18.674999 8.100500 19.816999 
9.047800 47.112000 22.969000 
-7.771200 48.631001 25.105000 
-13.314000 66.392998 -18.459999 
22.563999 44.207001 6.215100 
-23.497999 52.151001 -17.198000 
22.552999 33.731998 6.254500 
-10.509000 5.795900 -26.143000 
-17.414000 0.690450 -19.681999 
-22.531000 0.720410 -14.134000 
-13.448000 64.408997 16.313000 
8.208100 5.296800 -24.965000 
18.740000 11.924000 14.020000 
-0.530380 27.614000 25.320000 
15.395000 25.379999 -19.705000 
10.758000 2.565900 21.863001 
0.626540 35.484001 25.636000 
12.209000 74.813004 5.032400 
-29.021000 10.960000 -2.385900 
7.771200 8.026500 -25.105000 
2.872500 18.110001 -26.441999 
18.639000 28.096001 -15.695000 
-8.609700 42.488998 -26.497999 
-8.519700 20.915001 -26.858000 
-13.016000 38.227001 23.195000 
13.146000 68.183998 -13.055000 
23.988001 3.566000 -1.677400 
-22.000999 33.667999 -18.591999 
-26.275000 0.519840 -0.504510 
4.514100 27.090000 24.596001 
-0.760310 4.695700 -27.219999 
-15.050000 51.518002 22.313000 
3.393800 48.136002 24.775000 
15.377000 29.277000 18.068001 
2.872500 22.031000 -26.441999 
-18.141001 69.586998 10.857000 
12.477000 36.492001 20.930000 
-10.964000 38.751999 -25.955999 
-28.503000 5.339300 4.158200 
-22.212000 64.845001 -4.965000 
-28.075001 32.643002 4.849400 
15.695000 9.762500 18.639000 
-10.201000 0.308050 21.775999 
20.816000 7.459300 10.698000 
20.048000 48.653000 -14.406000 
11.138000 36.492001 21.672001 
16.693001 6.772400 16.403999 
-19.511000 67.063004 -12.334000 
-19.511999 42.488998 19.444000 
7.602800 30.341000 23.823000 
15.769000 57.215000 -18.993999 
18.055000 45.914001 -16.836000 
-24.667999 47.758999 12.951000 
-3.971900 6.465300 25.657000 
19.584999 20.915001 -15.028000 
-28.784000 10.259000 -1.105800 
-6.544300 1.343400 -25.124001 
-15.462000 73.039001 14.419000 
21.757999 4.224300 9.460600 
-16.402000 8.853700 -22.910000 
-12.023000 68.820000 -18.944000 
-22.483999 60.074001 12.981000 
17.879000 43.175999 15.597000 
21.520000 17.625999 -10.729000 
-10.098000 5.795900 -26.305000 
-25.223000 2.412700 -12.907000 
8.524300 44.202000 23.167999 
-26.406000 2.879800 -8.886700 
23.375999 22.570000 1.143300 
-19.497000 8.053500 -21.202999 
-10.623000 61.365002 21.214001 
-15.204000 74.811996 -13.738000 
23.410999 30.315001 -5.491000 
-7.184200 62.610001 -21.596001 
-13.388000 76.565002 15.079000 
23.051001 20.354000 5.619100 
-22.416000 71.563004 2.871500 
-3.388100 79.905998 -19.215000 
-19.648001 50.466999 -20.632000 
12.885000 24.142000 20.302999 
-21.360001 79.398003 -2.132000 
-28.469999 31.964001 -1.093700 
-17.209999 12.016000 21.101999 
-27.503000 6.449700 4.454500 
1.137700 63.292000 19.150000 
-17.958000 64.376999 12.342000 
4.569100 71.277000 -18.462999 
-24.143999 0.720410 -11.156000 
9.504700 69.879997 -16.664000 
-14.955000 72.778000 -16.726000 
-25.927000 2.823100 8.324200 
-25.231001 41.808998 11.819000 
15.135000 52.084999 19.096001 
-3.881300 52.015999 -27.271000 
17.351999 16.922001 16.181000 
5.654300 2.365700 23.372000 
-26.315001 48.256001 -11.716000 
8.980700 4.730900 -24.020000 
11.722000 17.545000 -22.808001 
-13.957000 76.565002 14.554000 
9.722300 72.786003 -14.199000 
11.722000 28.138000 -22.808001 
3.425600 11.461000 -26.375999 
11.282000 51.032001 -23.028999 
-26.593000 57.585999 -11.070000 
-24.094999 10.779000 -16.069000 
13.872000 27.068001 20.033001 
22.260000 11.133000 -9.910900 
9.042600 75.050003 14.641000 
9.696600 61.820000 -18.787001 
17.997999 64.910004 1.132300 
20.296000 44.202999 -13.484000 
8.907600 0.388460 -21.294001 
20.032000 2.508300 -12.713000 
-7.243700 25.427999 25.261999 
19.813000 30.837999 -14.185000 
-19.327999 71.443001 10.062000 
-24.945999 0.227980 -1.744400 
5.028200 33.763000 24.496000 
23.070000 4.739000 5.538600 
19.584999 42.660999 -15.028000 
23.079000 5.200000 0.402840 
6.801700 55.966999 -25.384001 
15.573000 68.183998 -10.036000 
-28.513000 28.245001 -5.079000 
17.434000 34.277000 -17.927000 
-26.305000 20.405001 10.098000 
-28.801001 34.176998 -0.502720 
12.118000 39.414001 -22.600000 
2.252100 20.853001 -26.820000 
-6.082200 72.220001 16.802000 
10.375000 27.068001 22.048000 
8.334000 1.366500 -22.896999 
-28.403000 4.124600 2.235400 
-9.483500 16.479000 -26.198000 
-4.404100 34.323002 -27.191999 
-27.611000 25.330999 5.617500 
9.072000 61.979000 -19.455000 
-0.563640 22.046000 -26.908001 
6.766800 25.379999 24.073000 
-11.397000 47.606998 23.680000 
15.568000 78.411003 -5.604900 
-14.503000 43.676998 -24.523001 
4.514100 49.847000 24.596001 
-28.472000 45.369999 -6.103800 
3.882300 2.026300 -25.670000 
-3.347200 41.464001 25.424999 
-3.976400 22.584999 -27.257999 
-12.498000 73.278999 15.825000 
19.103001 43.174999 14.605000 
12.479000 74.916000 6.803700 
-17.834000 5.861200 20.157000 
-28.229000 44.353001 -7.143000 
-26.416000 57.765999 -10.673000 
13.567000 79.952003 -10.039000 
-6.172700 40.449001 -27.169001 
-25.712999 27.566000 -13.328000 
-25.216999 35.877998 -14.559000 
22.966000 35.449001 4.505800 
-7.155300 76.120003 17.799000 
-3.305600 57.706001 25.108999 
11.660000 71.308998 -14.398000 
22.823000 53.144001 3.451600 
-19.165001 0.890890 -18.443001 
16.601999 32.566002 -18.700001 
14.062000 64.429001 -9.919600 
2.410600 44.875999 -26.488001 
0.984420 43.173000 25.625000 
14.540000 2.493900 18.544001 
15.220000 72.177002 4.537400 
5.653900 17.698000 24.686001 
12.349000 29.629000 20.632999 
